ply
format ascii 1.0
comment created by gply, a Houdini tool.
comment converted from .[b]geo
comment for more information about Houdini, try:
comment www.sidefx.com
element vertex 930
property float x
property float y
property float z
property float data_mult
property uchar red
property uchar green
property uchar blue
element face 0
property list uchar int vertex_indices
end_header
3.05000019 3.6500001 1.54999995 0.580145717 8 94 57 
3.05000019 3.75 1.45000005 0.585819483 8 94 57 
3.05000019 3.75 1.54999995 0.580099761 8 94 57 
3.1500001 3.6500001 1.45000005 0.587153316 8 94 57 
3.1500001 3.6500001 1.54999995 0.581124961 8 94 57 
3.1500001 3.75 1.45000005 0.587990999 11 102 53 
3.1500001 3.75 1.54999995 0.582160294 8 94 57 
3.05000019 3.8499999 0.0500000007 0.570333719 8 94 57 
3.05000019 3.8499999 -0.0500000007 0.570333719 8 94 57 
3.05000019 3.8499999 0.150000006 0.574530184 8 94 57 
3.05000019 3.95000005 0.0500000007 0.568413258 8 94 57 
3.05000019 3.95000005 -0.0500000007 0.568413258 8 94 57 
3.05000019 3.95000005 0.150000006 0.571902275 8 94 57 
3.1500001 3.8499999 0.0500000007 0.570706427 8 94 57 
3.1500001 3.8499999 -0.0500000007 0.570706427 8 94 57 
3.1500001 3.8499999 0.150000006 0.575138271 8 94 57 
3.1500001 3.95000005 0.0500000007 0.568646848 8 94 57 
3.1500001 3.95000005 -0.0500000007 0.568646848 8 94 57 
3.1500001 3.95000005 0.150000006 0.572347701 8 94 57 
3.05000019 3.8499999 0.25 0.579104781 8 94 57 
3.05000019 3.8499999 0.350000024 0.583721399 8 94 57 
3.05000019 3.95000005 0.25 0.575993061 8 94 57 
3.05000019 3.95000005 0.350000024 0.580293179 8 94 57 
3.1500001 3.8499999 0.25 0.579923391 8 94 57 
3.1500001 3.8499999 0.350000024 0.584715605 8 94 57 
3.1500001 3.95000005 0.25 0.576643229 8 94 57 
3.1500001 3.95000005 0.350000024 0.581123829 8 94 57 
3.05000019 3.8499999 0.449999988 0.588202894 11 102 53 
3.05000019 3.8499999 0.550000012 0.592466414 11 102 53 
3.05000019 3.95000005 0.449999988 0.584577441 8 94 57 
3.05000019 3.95000005 0.550000012 0.588726103 11 102 53 
3.1500001 3.8499999 0.449999988 0.589338601 11 102 53 
3.1500001 3.8499999 0.550000012 0.593714476 11 102 53 
3.1500001 3.95000005 0.449999988 0.585559905 8 94 57 
3.1500001 3.95000005 0.550000012 0.589833438 11 102 53 
3.05000019 3.8499999 0.649999976 0.596482813 11 102 53 
3.05000019 3.8499999 0.75 0.60025239 11 102 53 
3.05000019 3.95000005 0.649999976 0.592683256 11 102 53 
3.05000019 3.95000005 0.75 0.596430004 11 102 53 
3.1500001 3.8499999 0.649999976 0.597819805 11 102 53 
3.1500001 3.8499999 0.75 0.601660132 11 102 53 
3.1500001 3.95000005 0.649999976 0.593892395 11 102 53 
3.1500001 3.95000005 0.75 0.597722471 11 102 53 
3.05000019 3.8499999 0.850000024 0.603487372 11 102 53 
3.05000019 3.8499999 0.950000048 0.604325294 11 102 53 
3.05000019 3.95000005 0.850000024 0.599968612 11 102 53 
3.05000019 3.95000005 0.950000048 0.602017224 11 102 53 
3.1500001 3.8499999 0.850000024 0.605131567 11 102 53 
3.1500001 3.8499999 0.950000048 0.60638386 11 102 53 
3.1500001 3.95000005 0.850000024 0.601329982 11 102 53 
3.1500001 3.95000005 0.950000048 0.603818774 11 102 53 
3.05000019 3.8499999 1.04999995 0.603037894 11 102 53 
3.05000019 3.8499999 1.1500001 0.600216448 11 102 53 
3.05000019 3.95000005 1.04999995 0.601753294 11 102 53 
3.05000019 3.95000005 1.1500001 0.599772573 11 102 53 
3.1500001 3.8499999 1.04999995 0.605368078 11 102 53 
3.1500001 3.8499999 1.1500001 0.602712452 11 102 53 
3.1500001 3.95000005 1.04999995 0.603887439 11 102 53 
3.1500001 3.95000005 1.1500001 0.602123916 11 102 53 
3.05000019 3.8499999 1.25 0.596312582 11 102 53 
3.05000019 3.8499999 1.35000002 0.591659606 11 102 53 
3.05000019 3.95000005 1.25 0.596545517 11 102 53 
3.05000019 3.95000005 1.35000002 0.592429101 11 102 53 
3.1500001 3.8499999 1.25 0.598898828 11 102 53 
3.1500001 3.8499999 1.35000002 0.5942837 11 102 53 
3.1500001 3.95000005 1.25 0.599028826 11 102 53 
3.1500001 3.95000005 1.35000002 0.594983399 11 102 53 
3.05000019 3.8499999 1.45000005 0.586495459 8 94 57 
3.05000019 3.8499999 1.54999995 0.580986679 8 94 57 
3.05000019 3.95000005 1.45000005 0.587685704 11 102 53 
3.05000019 3.95000005 1.54999995 0.582502663 8 94 57 
3.1500001 3.8499999 1.45000005 0.589123011 11 102 53 
3.1500001 3.8499999 1.54999995 0.583592832 8 94 57 
3.1500001 3.95000005 1.45000005 0.590268433 11 102 53 
3.1500001 3.95000005 1.54999995 0.585085034 8 94 57 
3.05000019 4.05000019 0.0500000007 0.566949546 8 94 57 
3.05000019 4.05000019 -0.0500000007 0.566949546 8 94 57 
3.05000019 4.05000019 0.150000006 0.569622934 8 94 57 
3.05000019 4.1500001 0.0500000007 0.566039741 8 94 57 
3.05000019 4.1500001 -0.0500000007 0.566039741 8 94 57 
3.05000019 4.1500001 0.150000006 0.567774892 8 94 57 
3.1500001 4.05000019 0.0500000007 0.567070246 8 94 57 
3.1500001 4.05000019 -0.0500000007 0.567070246 8 94 57 
3.1500001 4.05000019 0.150000006 0.569922209 8 94 57 
3.1500001 4.1500001 0.0500000007 0.566079021 8 94 57 
3.1500001 4.1500001 -0.0500000007 0.566079021 8 94 57 
3.1500001 4.1500001 0.150000006 0.567948937 8 94 57 
3.05000019 4.05000019 0.25 0.573134959 8 94 57 
3.05000019 4.05000019 0.350000024 0.577040851 8 94 57 
3.05000019 4.1500001 0.25 0.570596695 8 94 57 
3.05000019 4.1500001 0.350000024 0.574014306 8 94 57 
3.1500001 4.05000019 0.25 0.573625743 8 94 57 
3.1500001 4.05000019 0.350000024 0.577711463 8 94 57 
3.1500001 4.1500001 0.25 0.570939779 8 94 57 
3.1500001 4.1500001 0.350000024 0.574529767 8 94 57 
3.05000019 4.05000019 0.449999988 0.581066549 8 94 57 
3.05000019 4.05000019 0.550000012 0.585053146 8 94 57 
3.05000019 4.1500001 0.449999988 0.577705801 8 94 57 
3.05000019 4.1500001 0.550000012 0.581470668 8 94 57 
3.1500001 4.05000019 0.449999988 0.58189553 8 94 57 
3.1500001 4.05000019 0.550000012 0.586017132 8 94 57 
3.1500001 4.1500001 0.449999988 0.578381419 8 94 57 
3.1500001 4.1500001 0.550000012 0.582288563 8 94 57 
3.05000019 4.05000019 0.649999976 0.588914752 11 102 53 
3.05000019 4.05000019 0.75 0.592611313 11 102 53 
3.05000019 4.1500001 0.649999976 0.585190892 8 94 57 
3.05000019 4.1500001 0.75 0.58880198 11 102 53 
3.1500001 4.05000019 0.649999976 0.589992285 11 102 53 
3.1500001 4.05000019 0.75 0.593783975 11 102 53 
3.1500001 4.1500001 0.649999976 0.58613205 8 94 57 
3.1500001 4.1500001 0.75 0.589849055 11 102 53 
3.05000019 4.05000019 0.850000024 0.596129656 11 102 53 
3.05000019 4.05000019 0.950000048 0.599165499 11 102 53 
3.05000019 4.1500001 0.850000024 0.592273057 11 102 53 
3.05000019 4.1500001 0.950000048 0.595594168 11 102 53 
3.1500001 4.05000019 0.850000024 0.597382545 11 102 53 
3.1500001 4.05000019 0.950000048 0.600664496 11 102 53 
3.1500001 4.1500001 0.850000024 0.593411207 11 102 53 
3.1500001 4.1500001 0.950000048 0.596811354 11 102 53 
3.05000019 4.05000019 1.04999995 0.60005641 11 102 53 
3.05000019 4.05000019 1.1500001 0.599036515 11 102 53 
3.05000019 4.1500001 1.04999995 0.597780824 11 102 53 
3.05000019 4.1500001 1.1500001 0.597863555 11 102 53 
3.1500001 4.05000019 1.04999995 0.601956904 11 102 53 
3.1500001 4.05000019 1.1500001 0.601213574 11 102 53 
3.1500001 4.1500001 1.04999995 0.599398017 11 102 53 
3.1500001 4.1500001 1.1500001 0.599825621 11 102 53 
3.05000019 4.05000019 1.25 0.596590757 11 102 53 
3.05000019 4.05000019 1.35000002 0.5930987 11 102 53 
3.05000019 4.1500001 1.25 0.596327186 11 102 53 
3.05000019 4.1500001 1.35000002 0.593570709 11 102 53 
3.1500001 4.05000019 1.25 0.598949075 11 102 53 
3.1500001 4.05000019 1.35000002 0.595567822 11 102 53 
3.1500001 4.1500001 1.25 0.598528564 11 102 53 
3.1500001 4.1500001 1.35000002 0.595930636 11 102 53 
3.05000019 4.05000019 1.45000005 0.58884722 11 102 53 
3.05000019 4.05000019 1.54999995 0.584046721 8 94 57 
3.05000019 4.1500001 1.45000005 0.589904964 11 102 53 
3.05000019 4.1500001 1.54999995 0.585564315 8 94 57 
3.1500001 4.05000019 1.45000005 0.591376185 11 102 53 
3.1500001 4.05000019 1.54999995 0.586599886 8 94 57 
3.1500001 4.1500001 1.45000005 0.592363298 11 102 53 
3.1500001 4.1500001 1.54999995 0.588077486 11 102 53 
3.05000019 4.25 0.0500000007 0.565789461 8 94 57 
3.05000019 4.25 -0.0500000007 0.565789461 8 94 57 
3.05000019 4.25 0.150000006 0.566465616 8 94 57 
3.05000019 4.35000038 0.0500000007 0.565789461 8 94 57 
3.05000019 4.35000038 -0.0500000007 0.565789461 8 94 57 
3.05000019 4.35000038 0.150000006 0.56582731 8 94 57 
3.1500001 4.25 0.0500000007 0.565789461 8 94 57 
3.1500001 4.25 -0.0500000007 0.565789461 8 94 57 
3.1500001 4.25 0.150000006 0.566541016 8 94 57 
3.1500001 4.35000038 0.0500000007 0.565789461 8 94 57 
3.1500001 4.35000038 -0.0500000007 0.565789461 8 94 57 
3.1500001 4.35000038 0.150000006 0.565838873 8 94 57 
3.05000019 4.25 0.25 0.568468869 8 94 57 
3.05000019 4.25 0.350000024 0.571286201 8 94 57 
3.05000019 4.35000038 0.25 0.566869795 8 94 57 
3.05000019 4.35000038 0.350000024 0.568956196 8 94 57 
3.1500001 4.25 0.25 0.568680525 8 94 57 
3.1500001 4.25 0.350000024 0.571654499 8 94 57 
3.1500001 4.35000038 0.25 0.566972852 8 94 57 
3.1500001 4.35000038 0.350000024 0.569190204 8 94 57 
3.05000019 4.25 0.449999988 0.574550569 8 94 57 
3.05000019 4.25 0.550000012 0.57801944 8 94 57 
3.05000019 4.35000038 0.449999988 0.571681619 8 94 57 
3.05000019 4.35000038 0.550000012 0.574762225 8 94 57 
3.1500001 4.25 0.449999988 0.575074911 8 94 57 
3.1500001 4.25 0.550000012 0.578688979 8 94 57 
3.1500001 4.35000038 0.449999988 0.572059751 8 94 57 
3.1500001 4.35000038 0.550000012 0.575283051 8 94 57 
3.05000019 4.25 0.649999976 0.58153969 8 94 57 
3.05000019 4.25 0.75 0.585019648 8 94 57 
3.05000019 4.35000038 0.649999976 0.578008294 8 94 57 
3.05000019 4.35000038 0.75 0.581298113 8 94 57 
3.1500001 4.25 0.649999976 0.582339644 8 94 57 
3.1500001 4.25 0.75 0.585934639 8 94 57 
3.1500001 4.35000038 0.649999976 0.578662813 8 94 57 
3.1500001 4.35000038 0.75 0.582074285 8 94 57 
3.05000019 4.25 0.850000024 0.588407934 11 102 53 
3.05000019 4.25 0.950000048 0.591679454 11 102 53 
3.05000019 4.35000038 0.850000024 0.584556937 8 94 57 
3.05000019 4.35000038 0.950000048 0.587742269 11 102 53 
3.1500001 4.25 0.850000024 0.589423895 11 102 53 
3.1500001 4.25 0.950000048 0.592784524 11 102 53 
3.1500001 4.35000038 0.850000024 0.585442603 8 94 57 
3.1500001 4.35000038 0.950000048 0.588726044 11 102 53 
3.05000019 4.25 1.04999995 0.594725609 11 102 53 
3.05000019 4.25 1.1500001 0.596072614 11 102 53 
3.05000019 4.35000038 1.04999995 0.590832531 11 102 53 
3.05000019 4.35000038 1.1500001 0.593440235 11 102 53 
3.1500001 4.25 1.04999995 0.595996141 11 102 53 
3.1500001 4.25 1.1500001 0.597765267 11 102 53 
3.1500001 4.35000038 1.04999995 0.5919047 11 102 53 
3.1500001 4.35000038 1.1500001 0.594792545 11 102 53 
3.05000019 4.25 1.25 0.59559834 11 102 53 
3.05000019 4.25 1.35000002 0.593714595 11 102 53 
3.05000019 4.35000038 1.25 0.594203591 11 102 53 
3.05000019 4.35000038 1.35000002 0.593357325 11 102 53 
3.1500001 4.25 1.25 0.597598195 11 102 53 
3.1500001 4.25 1.35000002 0.595930398 11 102 53 
3.1500001 4.35000038 1.25 0.595941186 11 102 53 
3.1500001 4.35000038 1.35000002 0.595379055 11 102 53 
3.05000019 4.25 1.45000005 0.590753734 11 102 53 
3.05000019 4.25 1.54999995 0.586973965 8 94 57 
3.05000019 4.35000038 1.45000005 0.591249287 11 102 53 
3.05000019 4.35000038 1.54999995 0.588159621 11 102 53 
3.1500001 4.25 1.45000005 0.593115211 11 102 53 
3.1500001 4.25 1.54999995 0.589428484 11 102 53 
3.1500001 4.35000038 1.45000005 0.593474627 11 102 53 
3.1500001 4.35000038 1.54999995 0.590525806 11 102 53 
1.6500001 3.25 1.6500001 0.672295153 19 125 42 
1.6500001 3.25 1.75 0.662790358 19 125 42 
1.6500001 3.3499999 1.6500001 0.666971207 19 125 42 
1.6500001 3.3499999 1.75 0.65775466 16 117 46 
1.75 3.25 1.6500001 0.661461771 16 117 46 
1.75 3.25 1.75 0.652339756 16 117 46 
1.75 3.3499999 1.6500001 0.656299293 16 117 46 
1.75 3.3499999 1.75 0.647439539 16 117 46 
1.6500001 3.25 1.85000002 0.653360784 16 117 46 
1.6500001 3.25 1.95000005 0.643990397 16 117 46 
1.6500001 3.3499999 1.85000002 0.648529172 16 117 46 
1.6500001 3.3499999 1.95000005 0.639292717 16 117 46 
1.75 3.25 1.85000002 0.643293917 16 117 46 
1.75 3.25 1.95000005 0.634302676 14 109 50 
1.75 3.3499999 1.85000002 0.638580322 16 117 46 
1.75 3.3499999 1.95000005 0.629712224 14 109 50 
1.6500001 3.25 2.05000019 0.634643316 14 109 50 
1.6500001 3.25 2.1500001 0.62526989 14 109 50 
1.6500001 3.3499999 2.05000019 0.630018711 14 109 50 
1.6500001 3.3499999 2.1500001 0.620663881 14 109 50 
1.75 3.25 2.05000019 0.625328302 14 109 50 
1.75 3.25 2.1500001 0.616321623 14 109 50 
1.75 3.3499999 2.05000019 0.620806038 14 109 50 
1.75 3.3499999 2.1500001 0.611818254 11 102 53 
1.6500001 3.25 2.25 0.615810454 14 109 50 
1.6500001 3.25 2.3499999 0.606197834 11 102 53 
1.6500001 3.3499999 2.25 0.611172318 11 102 53 
1.6500001 3.3499999 2.3499999 0.601478636 11 102 53 
1.75 3.25 2.25 0.607225418 11 102 53 
1.75 3.25 2.3499999 0.597976446 11 102 53 
1.75 3.3499999 2.25 0.602695286 11 102 53 
1.75 3.3499999 2.3499999 0.593375444 11 102 53 
1.6500001 3.25 2.45000005 0.596358955 11 102 53 
1.6500001 3.25 2.55000019 0.586216211 8 94 57 
1.6500001 3.3499999 2.45000005 0.591509044 11 102 53 
1.6500001 3.3499999 2.55000019 0.58118391 8 94 57 
1.75 3.25 2.45000005 0.588506699 11 102 53 
1.75 3.25 2.55000019 0.578744829 8 94 57 
1.75 3.3499999 2.45000005 0.5837906 8 94 57 
1.75 3.3499999 2.55000019 0.573867977 8 94 57 
1.6500001 3.25 2.6500001 0.542548299 6 86 60 
1.6500001 3.25 2.75 0.531891644 3 78 64 
1.6500001 3.3499999 2.6500001 0.570418894 8 94 57 
1.6500001 3.3499999 2.75 0.559127808 6 86 60 
1.75 3.25 2.6500001 0.568617582 8 94 57 
1.75 3.25 2.75 0.529493034 3 78 64 
1.75 3.3499999 2.6500001 0.563531518 8 94 57 
1.75 3.3499999 2.75 0.55270505 6 86 60 
1.6500001 3.25 2.8499999 0.521259785 3 78 64 
1.6500001 3.25 2.95000005 0.510561764 0 71 67 
1.6500001 3.3499999 2.8499999 0.521304667 3 78 64 
1.6500001 3.3499999 2.95000005 0.510003626 0 71 67 
1.75 3.25 2.8499999 0.519260824 3 78 64 
1.75 3.25 2.95000005 0.508977115 0 71 67 
1.75 3.3499999 2.8499999 0.541316092 6 86 60 
1.75 3.3499999 2.95000005 0.508112311 0 71 67 
1.6500001 3.25 3.05000019 0.499715894 0 71 67 
1.6500001 3.25 3.1500001 0.488653809 0 71 67 
1.6500001 3.3499999 3.05000019 0.498537272 0 71 67 
1.6500001 3.3499999 3.1500001 0.486835867 3 66 67 
1.75 3.25 3.05000019 0.49857077 0 71 67 
1.75 3.25 3.1500001 0.487984568 0 71 67 
1.75 3.3499999 3.05000019 0.497152746 0 71 67 
1.75 3.3499999 3.1500001 0.486000776 3 66 67 
1.6500001 3.45000005 1.6500001 0.66145426 16 117 46 
1.6500001 3.45000005 1.75 0.65253973 16 117 46 
1.6500001 3.55000019 1.6500001 0.655665755 16 117 46 
1.6500001 3.55000019 1.75 0.647077799 16 117 46 
1.75 3.45000005 1.6500001 0.650968373 16 117 46 
1.75 3.45000005 1.75 0.642379224 16 117 46 
1.75 3.55000019 1.6500001 0.645403922 16 117 46 
1.75 3.55000019 1.75 0.637102902 14 109 50 
1.6500001 3.45000005 1.85000002 0.643522322 16 117 46 
1.6500001 3.45000005 1.95000005 0.634414673 14 109 50 
1.6500001 3.55000019 1.85000002 0.638280094 16 117 46 
1.6500001 3.55000019 1.95000005 0.629302382 14 109 50 
1.75 3.45000005 1.85000002 0.633706629 14 109 50 
1.75 3.45000005 1.95000005 0.624954641 14 109 50 
1.75 3.55000019 1.85000002 0.628623843 14 109 50 
1.75 3.55000019 1.95000005 0.619985938 14 109 50 
1.6500001 3.45000005 2.05000019 0.625201225 14 109 50 
1.6500001 3.45000005 2.1500001 0.61584574 14 109 50 
1.6500001 3.55000019 2.05000019 0.620141268 14 109 50 
1.6500001 3.55000019 2.1500001 0.610768497 11 102 53 
1.75 3.45000005 2.05000019 0.616103351 14 109 50 
1.75 3.45000005 2.1500001 0.607115865 11 102 53 
1.75 3.55000019 2.05000019 0.611180127 11 102 53 
1.75 3.55000019 2.1500001 0.602176726 11 102 53 
1.6500001 3.45000005 2.25 0.606296659 11 102 53 
1.6500001 3.45000005 2.3499999 0.596489966 11 102 53 
1.6500001 3.55000019 2.25 0.60113734 11 102 53 
1.6500001 3.55000019 2.3499999 0.591185451 11 102 53 
1.75 3.45000005 2.25 0.597942472 11 102 53 
1.75 3.45000005 2.3499999 0.58852303 11 102 53 
1.75 3.55000019 2.25 0.592930138 11 102 53 
1.75 3.55000019 2.3499999 0.583382428 8 94 57 
1.6500001 3.45000005 2.45000005 0.586351633 8 94 57 
1.6500001 3.45000005 2.55000019 0.575799346 8 94 57 
1.6500001 3.55000019 2.45000005 0.580838263 8 94 57 
1.6500001 3.55000019 2.55000019 0.570010781 8 94 57 
1.75 3.45000005 2.45000005 0.578789413 8 94 57 
1.75 3.45000005 2.55000019 0.568667054 8 94 57 
1.75 3.55000019 2.45000005 0.573465288 8 94 57 
1.75 3.55000019 2.55000019 0.563102484 8 94 57 
1.6500001 3.45000005 2.6500001 0.564744711 8 94 57 
1.6500001 3.45000005 2.75 0.553096235 6 86 60 
1.6500001 3.55000019 2.6500001 0.558609784 6 86 60 
1.6500001 3.55000019 2.75 0.546537876 6 86 60 
1.75 3.45000005 2.6500001 0.558077097 6 86 60 
1.75 3.45000005 2.75 0.546939492 6 86 60 
1.75 3.55000019 2.6500001 0.552211881 6 86 60 
1.75 3.55000019 2.75 0.540709734 6 86 60 
1.6500001 3.45000005 2.8499999 0.54076463 6 86 60 
1.6500001 3.45000005 2.95000005 0.52767241 3 78 64 
1.6500001 3.55000019 2.8499999 0.533699512 3 78 64 
1.6500001 3.55000019 2.95000005 0.5200122 3 78 64 
1.75 3.45000005 2.8499999 0.535177886 3 78 64 
1.75 3.45000005 2.95000005 0.52272886 3 78 64 
1.75 3.55000019 2.8499999 0.528515875 3 78 64 
1.75 3.55000019 2.95000005 0.515565038 3 78 64 
1.6500001 3.45000005 3.05000019 0.513770223 3 78 64 
1.6500001 3.45000005 3.1500001 0.483722329 3 66 67 
1.6500001 3.55000019 3.05000019 0.505426109 0 71 67 
1.6500001 3.55000019 3.1500001 0.489956617 0 71 67 
1.75 3.45000005 3.05000019 0.509556711 0 71 67 
1.75 3.45000005 3.1500001 0.495677471 0 71 67 
1.75 3.55000019 3.05000019 0.501824081 0 71 67 
1.75 3.55000019 3.1500001 0.487321317 3 66 67 
1.6500001 3.6500001 1.6500001 0.649517357 16 117 46 
1.6500001 3.6500001 1.75 0.64129287 16 117 46 
1.6500001 3.75 1.6500001 0.642914772 16 117 46 
1.6500001 3.75 1.75 0.635104299 14 109 50 
1.75 3.6500001 1.6500001 0.639536679 16 117 46 
1.75 3.6500001 1.75 0.631551266 14 109 50 
1.75 3.75 1.6500001 0.633295715 14 109 50 
1.75 3.75 1.75 0.625665069 14 109 50 
1.6500001 3.6500001 1.85000002 0.632736742 14 109 50 
1.6500001 3.6500001 1.95000005 0.623897731 14 109 50 
1.6500001 3.75 1.85000002 0.626823366 14 109 50 
1.6500001 3.75 1.95000005 0.618141532 14 109 50 
1.75 3.6500001 1.85000002 0.623281002 14 109 50 
1.75 3.6500001 1.95000005 0.614761651 14 109 50 
1.75 3.75 1.85000002 0.617628574 14 109 50 
1.75 3.75 1.95000005 0.609240532 11 102 53 
1.6500001 3.6500001 2.05000019 0.614786148 14 109 50 
1.6500001 3.6500001 2.1500001 0.605383098 11 102 53 
1.6500001 3.75 2.05000019 0.609084189 11 102 53 
1.6500001 3.75 2.1500001 0.599643171 11 102 53 
1.75 3.6500001 2.05000019 0.605996549 11 102 53 
1.75 3.6500001 2.1500001 0.596964061 11 102 53 
1.75 3.75 2.05000019 0.60051775 11 102 53 
1.75 3.75 2.1500001 0.591447949 11 102 53 
1.6500001 3.6500001 2.25 0.595647097 11 102 53 
1.6500001 3.6500001 2.3499999 0.585518122 8 94 57 
1.6500001 3.75 2.25 0.589783192 11 102 53 
1.6500001 3.75 2.3499999 0.579446852 8 94 57 
1.75 3.6500001 2.25 0.587623775 11 102 53 
1.75 3.6500001 2.3499999 0.5779199 8 94 57 
1.75 3.75 2.25 0.581996799 8 94 57 
1.75 3.75 2.3499999 0.572111249 8 94 57 
1.6500001 3.6500001 2.45000005 0.574920774 8 94 57 
1.6500001 3.6500001 2.55000019 0.563767076 8 94 57 
1.6500001 3.75 2.45000005 0.568558097 8 94 57 
1.6500001 3.75 2.55000019 0.557025731 6 86 60 
1.75 3.6500001 2.45000005 0.56778425 8 94 57 
1.75 3.6500001 2.55000019 0.55713886 6 86 60 
1.75 3.75 2.45000005 0.56172365 6 86 60 
1.75 3.75 2.55000019 0.550754726 6 86 60 
1.6500001 3.6500001 2.6500001 0.551958501 6 86 60 
1.6500001 3.6500001 2.75 0.539391696 6 86 60 
1.6500001 3.75 2.6500001 0.54474622 6 86 60 
1.6500001 3.75 2.75 0.531609774 3 78 64 
1.75 3.6500001 2.6500001 0.545898736 6 86 60 
1.75 3.6500001 2.75 0.533976316 3 78 64 
1.75 3.75 2.6500001 0.53911674 6 86 60 
1.75 3.75 2.75 0.52671957 3 78 64 
1.6500001 3.6500001 2.8499999 0.525964797 3 78 64 
1.6500001 3.6500001 2.95000005 0.511591852 0 71 67 
1.6500001 3.75 2.8499999 0.517509639 3 78 64 
1.6500001 3.75 2.95000005 0.502359629 0 71 67 
1.75 3.6500001 2.8499999 0.521288872 3 78 64 
1.75 3.6500001 2.95000005 0.507771254 0 71 67 
1.75 3.75 2.8499999 0.513479829 3 78 64 
1.75 3.75 2.95000005 0.499336988 0 71 67 
1.6500001 3.6500001 3.05000019 0.496226728 0 71 67 
1.6500001 3.6500001 3.1500001 0.479904056 3 66 67 
1.6500001 3.75 3.05000019 0.486125022 3 66 67 
1.6500001 3.75 3.1500001 0.468875408 3 66 67 
1.75 3.6500001 3.05000019 0.493397981 0 71 67 
1.75 3.6500001 3.1500001 0.478218883 3 66 67 
1.75 3.75 3.05000019 0.484281003 3 66 67 
1.75 3.75 3.1500001 0.46839866 3 66 67 
1.6500001 3.8499999 1.6500001 0.635763347 14 109 50 
1.6500001 3.8499999 1.75 0.628432393 14 109 50 
1.6500001 3.95000005 1.6500001 0.627982974 14 109 50 
1.6500001 3.95000005 1.75 0.621212244 14 109 50 
1.75 3.8499999 1.6500001 0.62661612 14 109 50 
1.75 3.8499999 1.75 0.619392216 14 109 50 
1.75 3.95000005 1.6500001 0.619452715 14 109 50 
1.75 3.95000005 1.75 0.612700462 14 109 50 
1.6500001 3.8499999 1.85000002 0.620474339 14 109 50 
1.6500001 3.8499999 1.95000005 0.611980021 11 102 53 
1.6500001 3.95000005 1.85000002 0.613639951 14 109 50 
1.6500001 3.95000005 1.95000005 0.605379045 11 102 53 
1.75 3.8499999 1.85000002 0.611626327 11 102 53 
1.75 3.8499999 1.95000005 0.603392482 11 102 53 
1.75 3.95000005 1.85000002 0.605255783 11 102 53 
1.75 3.95000005 1.95000005 0.597212255 11 102 53 
1.6500001 3.8499999 2.05000019 0.602992058 11 102 53 
1.6500001 3.8499999 2.1500001 0.593513548 11 102 53 
1.6500001 3.95000005 2.05000019 0.596489251 11 102 53 
1.6500001 3.95000005 2.1500001 0.58698678 8 94 57 
1.75 3.8499999 2.05000019 0.594722331 11 102 53 
1.75 3.8499999 2.1500001 0.585614562 8 94 57 
1.75 3.95000005 2.05000019 0.588617742 11 102 53 
1.75 3.95000005 2.1500001 0.579483032 8 94 57 
1.6500001 3.8499999 2.25 0.583516836 8 94 57 
1.6500001 3.8499999 2.3499999 0.572947621 8 94 57 
1.6500001 3.95000005 2.25 0.576852143 8 94 57 
1.6500001 3.95000005 2.3499999 0.566035628 8 94 57 
1.75 3.8499999 2.25 0.576041639 8 94 57 
1.75 3.8499999 2.3499999 0.565954566 8 94 57 
1.75 3.95000005 2.25 0.569788933 8 94 57 
1.75 3.95000005 2.3499999 0.559491575 6 86 60 
1.6500001 3.8499999 2.45000005 0.561729848 6 86 60 
1.6500001 3.8499999 2.55000019 0.549769163 6 86 60 
1.6500001 3.95000005 2.45000005 0.554461777 6 86 60 
1.6500001 3.95000005 2.55000019 0.542034566 6 86 60 
1.75 3.8499999 2.45000005 0.555286705 6 86 60 
1.75 3.8499999 2.55000019 0.543958366 6 86 60 
1.75 3.95000005 2.45000005 0.5485273 6 86 60 
1.75 3.95000005 2.55000019 0.536817551 3 78 64 
1.6500001 3.8499999 2.6500001 0.536957502 3 78 64 
1.6500001 3.8499999 2.75 0.523180008 3 78 64 
1.6500001 3.95000005 2.6500001 0.528643012 3 78 64 
1.6500001 3.95000005 2.75 0.514171124 3 78 64 
1.75 3.8499999 2.6500001 0.531880498 3 78 64 
1.75 3.8499999 2.75 0.518962562 3 78 64 
1.75 3.95000005 2.6500001 0.524275124 3 78 64 
1.75 3.95000005 2.75 0.510813653 0 71 67 
1.6500001 3.8499999 2.8499999 0.50832808 0 71 67 
1.6500001 3.8499999 2.95000005 0.492322117 0 71 67 
1.6500001 3.95000005 2.8499999 0.498515218 0 71 67 
1.6500001 3.95000005 2.95000005 0.48161605 3 66 67 
1.75 3.8499999 2.8499999 0.505124688 0 71 67 
1.75 3.8499999 2.95000005 0.490318686 0 71 67 
1.75 3.95000005 2.8499999 0.496364862 0 71 67 
1.75 3.95000005 2.95000005 0.480906934 3 66 67 
1.6500001 3.8499999 3.05000019 0.475152791 3 66 67 
1.6500001 3.8499999 3.1500001 0.456952006 5 61 67 
1.6500001 3.95000005 3.05000019 0.463515848 3 66 67 
1.6500001 3.95000005 3.1500001 0.444456011 5 61 67 
1.75 3.8499999 3.05000019 0.474564224 3 66 67 
1.75 3.8499999 3.1500001 0.458009928 5 61 67 
1.75 3.95000005 3.05000019 0.464514136 3 66 67 
1.75 3.95000005 3.1500001 0.447437853 5 61 67 
1.6500001 4.05000019 1.6500001 0.619535327 14 109 50 
1.6500001 4.05000019 1.75 0.61341697 14 109 50 
1.6500001 4.1500001 1.6500001 0.610467732 11 102 53 
1.6500001 4.1500001 1.75 0.605100334 11 102 53 
1.75 4.05000019 1.6500001 0.611803949 11 102 53 
1.75 4.05000019 1.75 0.605601013 11 102 53 
1.75 4.1500001 1.6500001 0.603749812 11 102 53 
1.75 4.1500001 1.75 0.598183036 11 102 53 
1.6500001 4.05000019 1.85000002 0.606310785 11 102 53 
1.6500001 4.05000019 1.95000005 0.598348022 11 102 53 
1.6500001 4.1500001 1.85000002 0.598557055 11 102 53 
1.6500001 4.1500001 1.95000005 0.590981364 11 102 53 
1.75 4.05000019 1.85000002 0.598543346 11 102 53 
1.75 4.05000019 1.95000005 0.590743542 11 102 53 
1.75 4.1500001 1.85000002 0.591596186 11 102 53 
1.75 4.1500001 1.95000005 0.584116578 8 94 57 
1.6500001 4.05000019 2.05000019 0.58960551 11 102 53 
1.6500001 4.05000019 2.1500001 0.580112875 8 94 57 
1.6500001 4.1500001 2.05000019 0.582464159 8 94 57 
1.6500001 4.1500001 2.1500001 0.57304883 8 94 57 
1.75 4.05000019 2.05000019 0.582265794 8 94 57 
1.75 4.05000019 2.1500001 0.573134065 8 94 57 
1.75 4.1500001 2.05000019 0.575823784 8 94 57 
1.75 4.1500001 2.1500001 0.566756129 8 94 57 
1.6500001 4.05000019 2.25 0.569860399 8 94 57 
1.6500001 4.05000019 2.3499999 0.558804274 6 86 60 
1.6500001 4.1500001 2.25 0.562736571 8 94 57 
1.6500001 4.1500001 2.3499999 0.551492512 6 86 60 
1.75 4.05000019 2.25 0.563339412 8 94 57 
1.75 4.05000019 2.3499999 0.552845299 6 86 60 
1.75 4.1500001 2.25 0.556916952 6 86 60 
1.75 4.1500001 2.3499999 0.54628098 6 86 60 
1.6500001 4.05000019 2.45000005 0.546872139 6 86 60 
1.6500001 4.05000019 2.55000019 0.533969283 3 78 64 
1.6500001 4.1500001 2.45000005 0.539251983 6 86 60 
1.6500001 4.1500001 2.55000019 0.525928557 3 78 64 
1.75 4.05000019 2.45000005 0.541593671 6 86 60 
1.75 4.05000019 2.55000019 0.529511392 3 78 64 
1.75 4.1500001 2.45000005 0.534800887 3 78 64 
1.75 4.1500001 2.55000019 0.522416532 3 78 64 
1.6500001 4.05000019 2.6500001 0.519986749 3 78 64 
1.6500001 4.05000019 2.75 0.504815757 0 71 67 
1.6500001 4.1500001 2.6500001 0.511426568 0 71 67 
1.6500001 4.1500001 2.75 0.495662391 0 71 67 
1.75 4.05000019 2.6500001 0.516518533 3 78 64 
1.75 4.05000019 2.75 0.502542675 0 71 67 
1.75 4.1500001 2.6500001 0.509067059 0 71 67 
1.75 4.1500001 2.75 0.494711518 0 71 67 
1.6500001 4.05000019 2.8499999 0.488372773 0 71 67 
1.6500001 4.05000019 2.95000005 0.470645845 3 66 67 
1.6500001 4.1500001 2.8499999 0.478603303 3 66 67 
1.6500001 4.1500001 2.95000005 0.460335851 5 61 67 
1.75 4.05000019 2.8499999 0.487542331 0 71 67 
1.75 4.05000019 2.95000005 0.471547693 3 66 67 
1.75 4.1500001 2.8499999 0.479363561 3 66 67 
1.75 4.1500001 2.95000005 0.463150144 3 66 67 
1.6500001 4.05000019 3.05000019 0.451776296 5 61 67 
1.6500001 4.05000019 3.1500001 0.432197511 7 56 67 
1.6500001 4.1500001 3.05000019 0.441186368 5 61 67 
1.6500001 4.1500001 3.1500001 0.421918541 7 56 67 
1.75 4.05000019 3.05000019 0.45472911 5 61 67 
1.75 4.05000019 3.1500001 0.437509418 5 61 67 
1.75 4.1500001 3.05000019 0.446408719 5 61 67 
1.75 4.1500001 3.1500001 0.429833859 7 56 67 
1.6500001 4.25 1.6500001 0.601081014 11 102 53 
1.6500001 4.25 1.75 0.596474886 11 102 53 
1.6500001 4.35000038 1.6500001 0.591737568 11 102 53 
1.6500001 4.35000038 1.75 0.587994635 11 102 53 
1.75 4.25 1.6500001 0.59555155 11 102 53 
1.75 4.25 1.75 0.590669632 11 102 53 
1.75 4.35000038 1.6500001 0.587600768 11 102 53 
1.75 4.35000038 1.75 0.583490849 8 94 57 
1.6500001 4.25 1.85000002 0.590589762 11 102 53 
1.6500001 4.25 1.95000005 0.583521485 8 94 57 
1.6500001 4.35000038 1.85000002 0.582856238 8 94 57 
1.6500001 4.35000038 1.95000005 0.576436162 8 94 57 
1.75 4.25 1.85000002 0.584653854 8 94 57 
1.75 4.25 1.95000005 0.577602804 8 94 57 
1.75 4.35000038 1.85000002 0.578146935 8 94 57 
1.75 4.35000038 1.95000005 0.571677327 8 94 57 
1.6500001 4.25 2.05000019 0.575351834 8 94 57 
1.6500001 4.25 2.1500001 0.566136301 8 94 57 
1.6500001 4.35000038 2.05000019 0.568805695 8 94 57 
1.6500001 4.35000038 2.1500001 0.560003519 6 86 60 
1.75 4.25 2.05000019 0.569605052 8 94 57 
1.75 4.25 2.1500001 0.560713589 6 86 60 
1.75 4.35000038 2.05000019 0.564152956 8 94 57 
1.75 4.35000038 2.1500001 0.55563283 6 86 60 
1.6500001 4.25 2.25 0.555889726 6 86 60 
1.6500001 4.25 2.3499999 0.544591665 6 86 60 
1.6500001 4.35000038 2.25 0.55006361 6 86 60 
1.6500001 4.35000038 2.3499999 0.538991749 6 86 60 
1.75 4.25 2.25 0.550947785 6 86 60 
1.75 4.25 2.3499999 0.540299535 6 86 60 
1.75 4.35000038 2.25 0.54616189 6 86 60 
1.75 4.35000038 2.3499999 0.535760283 3 78 64 
1.6500001 4.25 2.45000005 0.532194495 3 78 64 
1.6500001 4.25 2.55000019 0.518634856 3 78 64 
1.6500001 4.35000038 2.45000005 0.526775479 3 78 64 
1.6500001 4.35000038 2.55000019 0.513403535 3 78 64 
1.75 4.25 2.45000005 0.528742373 3 78 64 
1.75 4.25 2.55000019 0.516243219 3 78 64 
1.75 4.35000038 2.45000005 0.524439096 3 78 64 
1.75 4.35000038 2.55000019 0.512218297 0 71 67 
1.6500001 4.25 2.6500001 0.503853321 0 71 67 
1.6500001 4.25 2.75 0.487828344 0 71 67 
1.6500001 4.35000038 2.6500001 0.498896986 0 71 67 
1.6500001 4.35000038 2.75 0.483363181 3 66 67 
1.75 4.25 2.6500001 0.502781689 0 71 67 
1.75 4.25 2.75 0.488381177 0 71 67 
1.75 4.35000038 2.6500001 0.499155551 0 71 67 
1.75 4.35000038 2.75 0.485393584 3 66 67 
1.6500001 4.25 2.8499999 0.47063601 3 66 67 
1.6500001 4.25 2.95000005 0.452554524 5 61 67 
1.6500001 4.35000038 2.8499999 0.467088729 3 66 67 
1.6500001 4.35000038 2.95000005 0.450204611 5 61 67 
1.75 4.25 2.8499999 0.473159969 3 66 67 
1.75 4.25 2.95000005 0.457417101 5 61 67 
1.75 4.35000038 2.8499999 0.471227735 3 66 67 
1.75 4.35000038 2.95000005 0.455916256 5 61 67 
1.6500001 4.25 3.05000019 0.434238642 7 56 67 
1.6500001 4.25 3.1500001 0.414931864 7 56 67 
1.6500001 4.35000038 3.05000019 0.431047648 7 56 67 
1.6500001 4.35000038 3.1500001 0.409030825 9 51 67 
1.75 4.25 3.05000019 0.441483974 5 61 67 
1.75 4.25 3.1500001 0.423871845 7 56 67 
1.75 4.35000038 3.05000019 0.438458472 5 61 67 
1.75 4.35000038 3.1500001 0.418470353 7 56 67 
1.85000002 3.25 1.6500001 0.651616395 16 117 46 
1.85000002 3.25 1.75 0.642849445 16 117 46 
1.85000002 3.3499999 1.6500001 0.646615148 16 117 46 
1.85000002 3.3499999 1.75 0.638089955 16 117 46 
1.95000005 3.25 1.6500001 0.642613769 16 117 46 
1.95000005 3.25 1.75 0.634171844 14 109 50 
1.95000005 3.3499999 1.6500001 0.63777411 16 117 46 
1.95000005 3.3499999 1.75 0.62955761 14 109 50 
1.85000002 3.25 1.85000002 0.634154201 14 109 50 
1.85000002 3.25 1.95000005 0.625506401 14 109 50 
1.85000002 3.3499999 1.85000002 0.629567862 14 109 50 
1.85000002 3.3499999 1.95000005 0.621035278 14 109 50 
1.95000005 3.25 1.85000002 0.625794768 14 109 50 
1.95000005 3.25 1.95000005 0.617456377 14 109 50 
1.95000005 3.3499999 1.85000002 0.621342778 14 109 50 
1.95000005 3.3499999 1.95000005 0.61311388 14 109 50 
1.85000002 3.25 2.05000019 0.616867721 14 109 50 
1.85000002 3.25 2.1500001 0.608190119 11 102 53 
1.85000002 3.3499999 2.05000019 0.612461567 11 102 53 
1.85000002 3.3499999 2.1500001 0.603804529 11 102 53 
1.95000005 3.25 2.05000019 0.609118998 11 102 53 
1.95000005 3.25 2.1500001 0.600736558 11 102 53 
1.95000005 3.3499999 2.05000019 0.604839981 11 102 53 
1.95000005 3.3499999 2.1500001 0.59648025 11 102 53 
1.85000002 3.25 2.25 0.599419475 11 102 53 
1.85000002 3.25 2.3499999 0.590496361 11 102 53 
1.85000002 3.3499999 2.25 0.595012844 11 102 53 
1.85000002 3.3499999 2.3499999 0.586028993 8 94 57 
1.95000005 3.25 2.25 0.592257857 11 102 53 
1.95000005 3.25 2.3499999 0.583627462 8 94 57 
1.95000005 3.3499999 2.25 0.587986469 11 102 53 
1.95000005 3.3499999 2.3499999 0.579305172 8 94 57 
1.85000002 3.25 2.45000005 0.581357837 8 94 57 
1.85000002 3.25 2.55000019 0.571938634 8 94 57 
1.85000002 3.3499999 2.45000005 0.576790094 8 94 57 
1.85000002 3.3499999 2.55000019 0.567230105 8 94 57 
1.95000005 3.25 2.45000005 0.57478714 8 94 57 
1.95000005 3.25 2.55000019 0.565677643 8 94 57 
1.95000005 3.3499999 2.45000005 0.570378602 8 94 57 
1.95000005 3.3499999 2.55000019 0.561146975 6 86 60 
1.85000002 3.25 2.6500001 0.562172353 6 86 60 
1.85000002 3.25 2.75 0.551994562 6 86 60 
1.85000002 3.3499999 2.6500001 0.557280779 6 86 60 
1.85000002 3.3499999 2.75 0.54687506 6 86 60 
1.95000005 3.25 2.6500001 0.556239307 6 86 60 
1.95000005 3.25 2.75 0.546415448 6 86 60 
1.95000005 3.3499999 2.6500001 0.551549792 6 86 60 
1.95000005 3.3499999 2.75 0.541528761 6 86 60 
1.85000002 3.25 2.8499999 0.51743418 3 78 64 
1.85000002 3.25 2.95000005 0.507532597 0 71 67 
1.85000002 3.3499999 2.8499999 0.535951257 3 78 64 
1.85000002 3.3499999 2.95000005 0.524460554 3 78 64 
1.95000005 3.25 2.8499999 0.536156058 3 78 64 
1.95000005 3.25 2.95000005 0.506183624 0 71 67 
1.95000005 3.3499999 2.8499999 0.531032324 3 78 64 
1.95000005 3.3499999 2.95000005 0.520023346 3 78 64 
1.85000002 3.25 3.05000019 0.497533709 0 71 67 
1.85000002 3.25 3.1500001 0.487391472 3 66 67 
1.85000002 3.3499999 3.05000019 0.49589473 0 71 67 
1.85000002 3.3499999 3.1500001 0.485253781 3 66 67 
1.95000005 3.25 3.05000019 0.496566504 0 71 67 
1.95000005 3.25 3.1500001 0.48684299 3 66 67 
1.95000005 3.3499999 3.05000019 0.508490205 0 71 67 
1.95000005 3.3499999 3.1500001 0.484556913 3 66 67 
1.85000002 3.45000005 1.6500001 0.641466558 16 117 46 
1.85000002 3.45000005 1.75 0.633187592 14 109 50 
1.85000002 3.55000019 1.6500001 0.636118114 14 109 50 
1.85000002 3.55000019 1.75 0.628097355 14 109 50 
1.95000005 3.45000005 1.6500001 0.632806599 14 109 50 
1.95000005 3.45000005 1.75 0.624817133 14 109 50 
1.95000005 3.55000019 1.6500001 0.627670169 14 109 50 
1.95000005 3.55000019 1.75 0.619915724 14 109 50 
1.85000002 3.45000005 1.85000002 0.624836028 14 109 50 
1.85000002 3.45000005 1.95000005 0.616410375 14 109 50 
1.85000002 3.55000019 1.85000002 0.619919777 14 109 50 
1.85000002 3.55000019 1.95000005 0.61159724 11 102 53 
1.95000005 3.45000005 1.85000002 0.616760612 14 109 50 
1.95000005 3.45000005 1.95000005 0.608631968 11 102 53 
1.95000005 3.55000019 1.85000002 0.612018406 11 102 53 
1.95000005 3.55000019 1.95000005 0.60398531 11 102 53 
1.85000002 3.45000005 2.05000019 0.607888639 11 102 53 
1.85000002 3.45000005 2.1500001 0.599234283 11 102 53 
1.85000002 3.55000019 2.05000019 0.603117406 11 102 53 
1.85000002 3.55000019 2.1500001 0.594450295 11 102 53 
1.95000005 3.45000005 2.05000019 0.600408673 11 102 53 
1.95000005 3.45000005 2.1500001 0.592055082 11 102 53 
1.95000005 3.55000019 2.05000019 0.595802367 11 102 53 
1.95000005 3.55000019 2.1500001 0.587440491 8 94 57 
1.85000002 3.45000005 2.25 0.590399861 11 102 53 
1.85000002 3.45000005 2.3499999 0.581329405 8 94 57 
1.85000002 3.55000019 2.25 0.585552573 8 94 57 
1.85000002 3.55000019 2.3499999 0.576370358 8 94 57 
1.95000005 3.45000005 2.25 0.583526433 8 94 57 
1.95000005 3.45000005 2.3499999 0.574771345 8 94 57 
1.95000005 3.55000019 2.25 0.578858852 8 94 57 
1.95000005 3.55000019 2.3499999 0.57000798 8 94 57 
1.85000002 3.45000005 2.45000005 0.571960628 8 94 57 
1.85000002 3.45000005 2.55000019 0.562226295 6 86 60 
1.85000002 3.55000019 2.45000005 0.5668419 8 94 57 
1.85000002 3.55000019 2.55000019 0.556899011 6 86 60 
1.95000005 3.45000005 2.45000005 0.565732718 8 94 57 
1.95000005 3.45000005 2.55000019 0.556350529 6 86 60 
1.95000005 3.55000019 2.45000005 0.560832202 6 86 60 
1.95000005 3.55000019 2.55000019 0.55127126 6 86 60 
1.85000002 3.45000005 2.6500001 0.552056491 6 86 60 
1.85000002 3.45000005 2.75 0.541381598 6 86 60 
1.85000002 3.55000019 2.6500001 0.546470046 6 86 60 
1.85000002 3.55000019 2.75 0.535483539 3 78 64 
1.95000005 3.45000005 2.6500001 0.546563268 6 86 60 
1.95000005 3.45000005 2.75 0.536311626 3 78 64 
1.95000005 3.55000019 2.6500001 0.541263223 6 86 60 
1.95000005 3.55000019 2.75 0.530748308 3 78 64 
1.85000002 3.45000005 2.8499999 0.530137777 3 78 64 
1.85000002 3.45000005 2.95000005 0.518275142 3 78 64 
1.85000002 3.55000019 2.8499999 0.523874044 3 78 64 
1.85000002 3.55000019 2.95000005 0.511592269 0 71 67 
1.95000005 3.45000005 2.8499999 0.525543511 3 78 64 
1.95000005 3.45000005 2.95000005 0.514222205 3 78 64 
1.95000005 3.55000019 2.8499999 0.519674718 3 78 64 
1.95000005 3.55000019 2.95000005 0.508009195 0 71 67 
1.85000002 3.45000005 3.05000019 0.505771995 0 71 67 
1.85000002 3.45000005 3.1500001 0.492656797 0 71 67 
1.85000002 3.55000019 3.05000019 0.498621881 0 71 67 
1.85000002 3.55000019 3.1500001 0.485006094 3 66 67 
1.95000005 3.45000005 3.05000019 0.502340496 0 71 67 
1.95000005 3.45000005 3.1500001 0.489940912 0 71 67 
1.95000005 3.55000019 3.05000019 0.495751977 0 71 67 
1.95000005 3.55000019 3.1500001 0.48296234 3 66 67 
1.85000002 3.6500001 1.6500001 0.630516112 14 109 50 
1.85000002 3.6500001 1.75 0.622774482 14 109 50 
1.85000002 3.75 1.6500001 0.624610603 14 109 50 
1.85000002 3.75 1.75 0.617178559 14 109 50 
1.95000005 3.6500001 1.6500001 0.62232554 14 109 50 
1.95000005 3.6500001 1.75 0.614821851 14 109 50 
1.95000005 3.75 1.6500001 0.61674124 14 109 50 
1.95000005 3.75 1.75 0.609511971 11 102 53 
1.85000002 3.6500001 1.85000002 0.614781439 14 109 50 
1.85000002 3.6500001 1.95000005 0.606563687 11 102 53 
1.85000002 3.75 1.85000002 0.609388709 11 102 53 
1.85000002 3.75 1.95000005 0.601284564 11 102 53 
1.95000005 3.6500001 1.85000002 0.607090712 11 102 53 
1.95000005 3.6500001 1.95000005 0.599152923 11 102 53 
1.95000005 3.75 1.85000002 0.601961434 11 102 53 
1.95000005 3.75 1.95000005 0.594125092 11 102 53 
1.85000002 3.6500001 2.05000019 0.598119915 11 102 53 
1.85000002 3.6500001 2.1500001 0.58942759 11 102 53 
1.85000002 3.75 2.05000019 0.592876732 11 102 53 
1.85000002 3.75 2.1500001 0.584151447 8 94 57 
1.95000005 3.6500001 2.05000019 0.591004431 11 102 53 
1.95000005 3.6500001 2.1500001 0.582622886 8 94 57 
1.95000005 3.75 2.05000019 0.586010039 8 94 57 
1.95000005 3.75 2.1500001 0.577602088 8 94 57 
1.85000002 3.6500001 2.25 0.58044821 8 94 57 
1.85000002 3.6500001 2.3499999 0.571130514 8 94 57 
1.85000002 3.75 2.25 0.575075865 8 94 57 
1.85000002 3.75 2.3499999 0.565601885 8 94 57 
1.95000005 3.6500001 2.25 0.573972225 8 94 57 
1.95000005 3.6500001 2.3499999 0.565005958 8 94 57 
1.95000005 3.75 2.25 0.568870723 8 94 57 
1.95000005 3.75 2.3499999 0.559773028 6 86 60 
1.85000002 3.6500001 2.45000005 0.561413288 6 86 60 
1.85000002 3.6500001 2.55000019 0.551228046 6 86 60 
1.85000002 3.75 2.45000005 0.555669785 6 86 60 
1.85000002 3.75 2.55000019 0.545211136 6 86 60 
1.95000005 3.6500001 2.45000005 0.555669665 6 86 60 
1.95000005 3.6500001 2.55000019 0.545903563 6 86 60 
1.95000005 3.75 2.45000005 0.550256729 6 86 60 
1.95000005 3.75 2.55000019 0.540263832 6 86 60 
1.85000002 3.6500001 2.6500001 0.540501773 6 86 60 
1.85000002 3.6500001 2.75 0.529161751 3 78 64 
1.85000002 3.75 2.6500001 0.534152687 3 78 64 
1.85000002 3.75 2.75 0.522421896 3 78 64 
1.95000005 3.6500001 2.6500001 0.535646141 3 78 64 
1.95000005 3.6500001 2.75 0.524838209 3 78 64 
1.95000005 3.75 2.6500001 0.529734075 3 78 64 
1.95000005 3.75 2.75 0.518611312 3 78 64 
1.85000002 3.6500001 2.8499999 0.517142415 3 78 64 
1.85000002 3.6500001 2.95000005 0.504398346 0 71 67 
1.85000002 3.75 2.8499999 0.509956181 0 71 67 
1.85000002 3.75 2.95000005 0.496718466 0 71 67 
1.95000005 3.6500001 2.8499999 0.513430715 3 78 64 
1.95000005 3.6500001 2.95000005 0.501396418 0 71 67 
1.95000005 3.75 2.8499999 0.50685221 0 71 67 
1.95000005 3.75 2.95000005 0.49444136 0 71 67 
1.85000002 3.6500001 3.05000019 0.490923762 0 71 67 
1.85000002 3.6500001 3.1500001 0.47678569 3 66 67 
1.85000002 3.75 3.05000019 0.482722342 3 66 67 
1.85000002 3.75 3.1500001 0.468073398 3 66 67 
1.95000005 3.6500001 3.05000019 0.488749504 0 71 67 
1.95000005 3.6500001 3.1500001 0.475575268 3 66 67 
1.95000005 3.75 3.05000019 0.48141551 3 66 67 
1.95000005 3.75 3.1500001 0.467900097 3 66 67 
1.85000002 3.8499999 1.6500001 0.61836195 14 109 50 
1.85000002 3.8499999 1.75 0.611280978 11 102 53 
1.85000002 3.95000005 1.6500001 0.611755311 11 102 53 
1.85000002 3.95000005 1.75 0.605078578 11 102 53 
1.95000005 3.8499999 1.6500001 0.610900283 11 102 53 
1.95000005 3.8499999 1.75 0.603978992 11 102 53 
1.95000005 3.95000005 1.6500001 0.604815006 11 102 53 
1.95000005 3.95000005 1.75 0.598245561 11 102 53 
1.85000002 3.8499999 1.85000002 0.603723466 11 102 53 
1.85000002 3.8499999 1.95000005 0.595750451 11 102 53 
1.85000002 3.95000005 1.85000002 0.597794175 11 102 53 
1.85000002 3.95000005 1.95000005 0.589981854 11 102 53 
1.95000005 3.8499999 1.85000002 0.596632123 11 102 53 
1.95000005 3.8499999 1.95000005 0.588911355 11 102 53 
1.95000005 3.95000005 1.85000002 0.591136158 11 102 53 
1.95000005 3.95000005 1.95000005 0.583555937 8 94 57 
1.85000002 3.8499999 2.05000019 0.587386429 8 94 57 
1.85000002 3.8499999 2.1500001 0.578627527 8 94 57 
1.85000002 3.95000005 2.05000019 0.581680894 8 94 57 
1.85000002 3.95000005 2.1500001 0.572898746 8 94 57 
1.95000005 3.8499999 2.05000019 0.580836356 8 94 57 
1.95000005 3.8499999 2.1500001 0.57240206 8 94 57 
1.95000005 3.95000005 2.05000019 0.575538158 8 94 57 
1.95000005 3.95000005 2.1500001 0.567088842 8 94 57 
1.85000002 3.8499999 2.25 0.569447517 8 94 57 
1.85000002 3.8499999 2.3499999 0.55980289 6 86 60 
1.85000002 3.95000005 2.25 0.563617647 8 94 57 
1.85000002 3.95000005 2.3499999 0.553800046 6 86 60 
1.95000005 3.8499999 2.25 0.563585103 8 94 57 
1.95000005 3.8499999 2.3499999 0.554347098 6 86 60 
1.95000005 3.95000005 2.25 0.55819267 6 86 60 
1.95000005 3.95000005 2.3499999 0.54881829 6 86 60 
1.85000002 3.8499999 2.45000005 0.549636364 6 86 60 
1.85000002 3.8499999 2.55000019 0.538880825 6 86 60 
1.85000002 3.95000005 2.45000005 0.543392837 6 86 60 
1.85000002 3.95000005 2.55000019 0.532333195 3 78 64 
1.95000005 3.8499999 2.45000005 0.544639468 6 86 60 
1.95000005 3.8499999 2.55000019 0.534407377 3 78 64 
1.95000005 3.95000005 2.45000005 0.538922906 6 86 60 
1.95000005 3.95000005 2.55000019 0.528457701 3 78 64 
1.85000002 3.8499999 2.6500001 0.527464628 3 78 64 
1.85000002 3.8499999 2.75 0.515318513 3 78 64 
1.85000002 3.95000005 2.6500001 0.520554304 3 78 64 
1.85000002 3.95000005 2.75 0.507995725 0 71 67 
1.95000005 3.8499999 2.6500001 0.523594558 3 78 64 
1.95000005 3.8499999 2.75 0.512151122 0 71 67 
1.95000005 3.95000005 2.6500001 0.517374277 3 78 64 
1.95000005 3.95000005 2.75 0.505635023 0 71 67 
1.85000002 3.8499999 2.8499999 0.502387702 0 71 67 
1.85000002 3.8499999 2.95000005 0.488651991 0 71 67 
1.85000002 3.95000005 2.8499999 0.49461922 0 71 67 
1.85000002 3.95000005 2.95000005 0.480435491 3 66 67 
1.95000005 3.8499999 2.8499999 0.500045061 0 71 67 
1.95000005 3.8499999 2.95000005 0.48728165 3 66 67 
1.95000005 3.95000005 2.8499999 0.493228585 0 71 67 
1.95000005 3.95000005 2.95000005 0.480194807 3 66 67 
1.85000002 3.8499999 3.05000019 0.474158227 3 66 67 
1.85000002 3.8499999 3.1500001 0.459073812 5 61 67 
1.85000002 3.95000005 3.05000019 0.465548009 3 66 67 
1.85000002 3.95000005 3.1500001 0.450222373 5 61 67 
1.95000005 3.8499999 3.05000019 0.473933786 3 66 67 
1.95000005 3.8499999 3.1500001 0.460189104 5 61 67 
1.95000005 3.95000005 3.05000019 0.466664374 3 66 67 
1.95000005 3.95000005 3.1500001 0.452920288 5 61 67 
1.85000002 4.05000019 1.6500001 0.604822218 11 102 53 
1.85000002 4.05000019 1.75 0.598614573 11 102 53 
1.85000002 4.1500001 1.6500001 0.597673178 11 102 53 
1.85000002 4.1500001 1.75 0.592011333 11 102 53 
1.95000005 4.05000019 1.6500001 0.598547101 11 102 53 
1.95000005 4.05000019 1.75 0.592384398 11 102 53 
1.95000005 4.1500001 1.6500001 0.592236102 11 102 53 
1.95000005 4.1500001 1.75 0.586547792 8 94 57 
1.85000002 4.05000019 1.85000002 0.59165889 11 102 53 
1.85000002 4.05000019 1.95000005 0.584052622 8 94 57 
1.85000002 4.1500001 1.85000002 0.585457206 8 94 57 
1.85000002 4.1500001 1.95000005 0.578124225 8 94 57 
1.95000005 4.05000019 1.85000002 0.585559964 8 94 57 
1.95000005 4.05000019 1.95000005 0.578159869 8 94 57 
1.95000005 4.1500001 1.85000002 0.580073059 8 94 57 
1.95000005 4.1500001 1.95000005 0.572914124 8 94 57 
1.85000002 4.05000019 2.05000019 0.575850785 8 94 57 
1.85000002 4.05000019 2.1500001 0.567073762 8 94 57 
1.85000002 4.1500001 2.05000019 0.57008332 8 94 57 
1.85000002 4.1500001 2.1500001 0.561369359 6 86 60 
1.95000005 4.05000019 2.05000019 0.57023257 8 94 57 
1.95000005 4.05000019 2.1500001 0.561796665 6 86 60 
1.95000005 4.1500001 2.05000019 0.565135121 8 94 57 
1.95000005 4.1500001 2.1500001 0.55676955 6 86 60 
1.85000002 4.05000019 2.25 0.557714462 6 86 60 
1.85000002 4.05000019 2.3499999 0.547743559 6 86 60 
1.85000002 4.1500001 2.25 0.551988482 6 86 60 
1.85000002 4.1500001 2.3499999 0.541924059 6 86 60 
1.95000005 4.05000019 2.25 0.552847624 6 86 60 
1.95000005 4.05000019 2.3499999 0.543363571 6 86 60 
1.95000005 4.1500001 2.25 0.547826767 6 86 60 
1.95000005 4.1500001 2.3499999 0.538298488 6 86 60 
1.85000002 4.05000019 2.45000005 0.537115932 3 78 64 
1.85000002 4.05000019 2.55000019 0.525776923 3 78 64 
1.85000002 4.1500001 2.45000005 0.531144321 3 78 64 
1.85000002 4.1500001 2.55000019 0.519610941 3 78 64 
1.95000005 4.05000019 2.45000005 0.53331095 3 78 64 
1.95000005 4.05000019 2.55000019 0.52265209 3 78 64 
1.95000005 4.1500001 2.45000005 0.52816689 3 78 64 
1.95000005 4.1500001 2.55000019 0.51741308 3 78 64 
1.85000002 4.05000019 2.6500001 0.513671398 3 78 64 
1.85000002 4.05000019 2.75 0.500757456 0 71 67 
1.85000002 4.1500001 2.6500001 0.507292032 0 71 67 
1.85000002 4.1500001 2.75 0.494181454 0 71 67 
1.95000005 4.05000019 2.6500001 0.511353314 0 71 67 
1.95000005 4.05000019 2.75 0.499399364 0 71 67 
1.95000005 4.1500001 2.6500001 0.506029844 0 71 67 
1.95000005 4.1500001 2.75 0.494040817 0 71 67 
1.85000002 4.05000019 2.8499999 0.487028599 3 66 67 
1.85000002 4.05000019 2.95000005 0.472550571 3 66 67 
1.85000002 4.1500001 2.8499999 0.480330616 3 66 67 
1.85000002 4.1500001 2.95000005 0.465899587 3 66 67 
1.95000005 4.05000019 2.8499999 0.486814409 3 66 67 
1.95000005 4.05000019 2.95000005 0.473695189 3 66 67 
1.95000005 4.1500001 2.8499999 0.481529534 3 66 67 
1.95000005 4.1500001 2.95000005 0.468685091 3 66 67 
1.85000002 4.05000019 3.05000019 0.457520545 5 61 67 
1.85000002 4.05000019 3.1500001 0.442360163 5 61 67 
1.85000002 4.1500001 3.05000019 0.451238781 5 61 67 
1.85000002 4.1500001 3.1500001 0.436628312 7 56 67 
1.95000005 4.05000019 3.05000019 0.460264355 5 61 67 
1.95000005 4.05000019 3.1500001 0.446948439 5 61 67 
1.95000005 4.1500001 3.05000019 0.455861092 5 61 67 
1.95000005 4.1500001 3.1500001 0.442361534 5 61 67 
1.85000002 4.25 1.6500001 0.590562344 11 102 53 
1.85000002 4.25 1.75 0.585512936 8 94 57 
1.85000002 4.35000038 1.6500001 0.583884418 8 94 57 
1.85000002 4.35000038 1.75 0.579532623 8 94 57 
1.95000005 4.25 1.6500001 0.586144388 8 94 57 
1.95000005 4.25 1.75 0.581003845 8 94 57 
1.95000005 4.35000038 1.6500001 0.580662549 8 94 57 
1.95000005 4.35000038 1.75 0.576159418 8 94 57 
1.85000002 4.25 1.85000002 0.579455674 8 94 57 
1.85000002 4.25 1.95000005 0.572495103 8 94 57 
1.85000002 4.35000038 1.85000002 0.574087501 8 94 57 
1.85000002 4.35000038 1.95000005 0.567652464 8 94 57 
1.95000005 4.25 1.85000002 0.574967504 8 94 57 
1.95000005 4.25 1.95000005 0.568141997 8 94 57 
1.95000005 4.35000038 1.85000002 0.570686817 8 94 57 
